-0.57962644100189209 -0.89169007539749146 2.4753520488739014 235 216 222
-0.69126445055007935 -0.88850855827331543 2.5689537525177002 214 191 209
-0.28631669282913208 -1.1635066270828247 2.4204621315002441 155 111 100
-0.58940130472183228 -1.0548151731491089 2.5389997959136963 241 192 196
0.89985203742980957 -0.56396770477294922 1.8169090747833252 204 186 210
-0.65741485357284546 -0.8671758770942688 2.5403189659118652 221 207 224
-0.51016181707382202 -1.1289044618606567 2.5220348834991455 118 105 122
-0.58503705263137817 -1.0707594156265259 2.5405218601226807 235 184 183
-0.65344613790512085 -1.1319475173950195 2.6083319187164307 176 149 166
-0.53179913759231567 -1.0846210718154907 2.508735179901123 148 148 174
-0.72699058055877686 -0.85488295555114746 2.5774102210998535 237 211 214
-0.75518506765365601 -0.81938773393630981 2.584975004196167 233 209 209
-0.57929772138595581 -0.8700222373008728 2.4652514457702637 238 213 217
-0.55147719383239746 -1.0165665149688721 2.5078346729278564 241 212 208
0.93610107898712158 2.4330449104309082 1.6732325553894043 156 164 187
-0.59524315595626831 -0.91693651676177979 2.5020887851715088 255 237 239
0.73266798257827759 -0.32354816794395447 1.8883703947067261 225 205 217
-0.52210992574691772 -0.91614079475402832 2.4488604068756104 242 221 226
-0.58286315202713013 -1.0805201530456543 2.5442314147949219 226 171 164
-0.83655351400375366 0.30918970704078674 2.3442740440368652 199 170 190
-0.4560992419719696 -1.034207820892334 2.4424068927764893 221 202 204
-1.2141646146774292 -0.10004676133394241 2.760606050491333 248 221 214
-0.55826288461685181 0.25969231128692627 1.6063735485076904 166 174 163
-0.65650480985641479 -0.88174968957901001 2.5495114326477051 223 203 215
-0.6728585958480835 -1.1761100292205811 2.6180412769317627 178 161 151
-0.53638672828674316 -1.0318711996078491 2.5004186630249023 244 218 221
-0.76291888952255249 -0.83967602252960205 2.5947756767272949 229 204 207
-0.60862439870834351 -0.9079287052154541 2.5129022598266602 255 235 237
0.60678040981292725 -0.28505930304527283 1.9226105213165283 210 207 228
-0.57829129695892334 0.32928195595741272 1.5878424644470215 177 197 204
-0.64003866910934448 -1.1236515045166016 2.6013879776000977 161 137 159
-0.64243781566619873 -1.1431585550308228 2.6060266494750977 147 123 147
-0.86084175109863281 0.29486608505249023 2.355083703994751 194 157 174
-0.46878784894943237 -1.0713710784912109 2.4660987854003906 106 93 111
-0.46426519751548767 -1.0456235408782959 2.4530534744262695 207 182 186
-0.46932771801948547 0.26624912023544312 1.6197179555892944 156 155 150
-0.81583011150360107 -0.049884285777807236 2.375401496887207 151 132 151
-0.63338220119476318 -0.86531513929367065 2.5149762630462646 196 180 191
-0.6950414776802063 -0.56369942426681519 2.435676097869873 171 142 147
-0.55139261484146118 -0.86272323131561279 2.4539558887481689 201 170 175
-0.60869443416595459 -0.93047386407852173 2.5126876831054688 215 192 198
-0.76492452621459961 -0.87328571081161499 2.6043353080749512 197 174 184
-0.50278609991073608 -1.1637505292892456 2.5123188495635986 62 45 61
-0.35004118084907532 0.278216153383255 1.6541750431060791 121 109 121
-0.67103397846221924 -0.88218849897384644 2.556185245513916 174 151 161
0.91770893335342407 2.8063697814941406 1.6422649621963501 122 137 118
-0.55544865131378174 -0.92293232679367065 2.4696855545043945 190 173 183
-0.26771447062492371 0.089193947613239288 1.6915267705917358 98 83 86
-0.46568459272384644 -0.13814748823642731 1.6703683137893677 88 88 98
-0.69154191017150879 -0.88029682636260986 2.56606125831604 188 168 179
-0.66349202394485474 -0.93588250875473022 2.5622453689575195 170 149 166
-0.37255182862281799 0.3010118305683136 1.6447447538375854 124 114 125
-0.082039549946784973 -1.106669545173645 2.2855353355407715 74 68 72
-0.51372438669204712 -1.1158671379089355 2.5165030956268311 82 73 92
-0.48109796643257141 -0.76172375679016113 2.3309855461120605 75 56 49
-1.0356765985488892 -0.2145313173532486 2.6712789535522461 121 100 117
-0.21826528012752533 -1.1110639572143555 2.3652992248535156 51 68 78
0.73748177289962769 1.56536865234375 1.8330912590026855 113 82 90
-0.65208029747009277 0.25817552208900452 1.588304877281189 143 142 158
-1.1677054166793823 -0.051650654524564743 2.7506837844848633 126 112 101
-0.51639795303344727 -1.0515892505645752 2.483781099319458 116 97 116
0.51266223192214966 0.54316627979278564 1.9446394443511963 68 55 64
-0.81895285844802856 -0.7700541615486145 2.6543655395507812 56 27 19
-0.26972070336341858 -1.1480944156646729 2.4053072929382324 69 78 73
-0.59624558687210083 -0.87864512205123901 2.4984347820281982 158 143 162
-1.0034399032592773 -0.22787126898765564 2.6552703380584717 114 82 93
0.37749794125556946 2.0899574756622314 1.9525535106658936 85 63 76
-0.56727868318557739 -1.0615445375442505 2.5223026275634766 109 94 113
0.57152879238128662 -0.90340989828109741 1.9696558713912964 60 58 71
0.17730379104614258 -1.0089044570922852 2.1148552894592285 99 85 72
-0.55322664976119995 -0.7003324031829834 2.3989732265472412 52 39 48
0.59905189275741577 -0.90276050567626953 1.9561817646026611 75 71 62
0.70140892267227173 0.15768350660800934 1.873296856880188 190 169 176
-1.0769128799438477 -0.17201623320579529 2.7046372890472412 44 61 27
-0.5637020468711853 -1.1213474273681641 2.5515956878662109 116 111 105
-0.59211891889572144 -0.64731991291046143 2.3705472946166992 69 44 39
0.21434812247753143 -0.9926190972328186 2.0965962409973145 83 76 60
-0.85951948165893555 -0.22918273508548737 2.4623827934265137 65 70 47
-1.1293482780456543 0.92974042892456055 2.6955654621124268 81 71 61
0.63313281536102295 -0.87770366668701172 1.9643528461456299 77 70 64
-0.68677628040313721 -0.18787150084972382 1.9817395210266113 72 54 54
-0.58712053298950195 -0.82288050651550293 2.4534738063812256 87 65 67
-0.52177047729492188 -0.88025623559951782 2.4438021183013916 60 45 40
-0.60875159502029419 -0.56294482946395874 2.3584845066070557 75 55 48
-1.1838394403457642 1.3057810068130493 2.6893398761749268 77 84 53
0.91758793592453003 0.77157372236251831 1.765089750289917 69 38 53
-0.52070838212966919 -0.93688637018203735 2.4559025764465332 68 43 39
-0.56487125158309937 -1.0046160221099854 2.5148026943206787 89 86 103
0.6910024881362915 1.6194969415664673 1.850142240524292 71 54 64
-0.48749575018882751 -0.99762225151062012 2.4617419242858887 122 81 87
-0.69951093196868896 -0.82820570468902588 2.5570952892303467 73 52 33
-0.71202230453491211 -0.54818689823150635 2.4501953125 47 36 34
0.79132646322250366 0.027060100808739662 1.835442066192627 150 101 87
-0.39992356300354004 -1.0398023128509521 2.4086003303527832 35 23 23
-1.063521146774292 -0.3151957094669342 2.727374792098999 20 4 7
-0.54005783796310425 -0.65978908538818359 2.3428237438201904 43 23 32
0.71633273363113403 1.5920224189758301 1.8510593175888062 42 30 34
0.55429035425186157 -0.68231308460235596 1.9611904621124268 104 92 102
-0.81334459781646729 -0.21930386126041412 2.4409308433532715 64 45 41
-0.70008552074432373 -0.79517751932144165 2.533374547958374 101 92 77
-0.60610884428024292 -0.99229931831359863 2.5450704097747803 106 81 85
0.57692229747772217 -0.42232257127761841 1.9222373962402344 52 38 38
-0.48027020692825317 -1.1403840780258179 2.5383505821228027 83 72 88
-0.81568050384521484 -0.27447405457496643 2.4468905925750732 221 195 196
-0.84516227245330811 0.2643674910068512 2.364004373550415 173 156 174
1.9799468517303467 -0.32825636863708496 1.3554319143295288 250 235 240
0.73076987266540527 -0.714305579662323 1.9073112010955811 250 228 231
-1.0622445344924927 0.21465900540351868 2.6157281398773193 209 205 220
-0.54965102672576904 -0.67327797412872314 2.3747215270996094 248 223 218
1.3709657192230225 -0.65284889936447144 1.6405785083770752 213 194 213
0.68983805179595947 0.45167142152786255 1.9023795127868652 255 243 245
-0.64119875431060791 -0.56115525960922241 2.3610355854034424 242 224 224
-0.57704228162765503 -0.62269121408462524 2.3427829742431641 250 228 217
-0.66216224431991577 -0.17441686987876892 1.9585984945297241 201 159 161
1.2991790771484375 -0.16972744464874268 1.6642957925796509 255 224 213
0.98664194345474243 0.69652903079986572 1.7771449089050293 228 211 221
-0.83832848072052002 0.31756800413131714 2.3455798625946045 188 155 172
-1.0146069526672363 -0.18229195475578308 2.6515042781829834 209 196 203
-0.043668888509273529 -1.2902032136917114 2.3077988624572754 214 189 167
1.2200915813446045 0.45893946290016174 1.6840047836303711 237 225 225
1.234470009803772 0.75460958480834961 1.6340715885162354 255 252 251
-1.0333422422409058 0.048869770020246506 2.6017193794250488 248 230 242
1.1183813810348511 -0.37521636486053467 1.7319875955581665 255 237 236
0.90048271417617798 -0.70880764722824097 1.7974315881729126 227 201 212
-0.72458440065383911 -0.48459464311599731 2.4416120052337646 195 151 152
-0.508231520652771 -0.17047503590583801 1.6855343580245972 170 170 158
-1.0942924022674561 -0.18901863694190979 2.7258269786834717 220 203 213
-0.96456074714660645 0.1018342599272728 2.530714750289917 224 202 214
1.4463155269622803 0.3951999843120575 1.5752567052841187 221 217 231
1.3624718189239502 0.50296282768249512 1.6135638952255249 245 233 237
-1.0506460666656494 0.13549749553203583 2.5930051803588867 222 213 230
0.72458493709564209 -0.12603297829627991 1.8776055574417114 252 232 233
-0.77244919538497925 0.20505388081073761 2.2264654636383057 191 162 166
-0.77111935615539551 -0.45889654755592346 2.5020790100097656 249 241 228
-0.77307838201522827 -0.45918950438499451 2.499753475189209 255 244 236
1.2325644493103027 0.58425915241241455 1.6910979747772217 226 210 220
-0.59897875785827637 -0.65410614013671875 2.3779246807098389 243 218 213
1.6083133220672607 0.20829269289970398 1.5082424879074097 235 218 226
-0.32794800400733948 1.4371302127838135 2.3091781139373779 249 255 255
-0.54488593339920044 -0.81728518009185791 2.4387233257293701 226 196 204
-0.54328674077987671 -0.81776905059814453 2.436981201171875 234 208 221
1.6977407932281494 0.0065628481097519398 1.4724421501159668 181 173 196
-1.0202955007553101 -0.30495354533195496 2.6867804527282715 232 215 221
-0.86728388071060181 0.21065613627433777 2.3780081272125244 199 168 174
-0.96803689002990723 -0.017200157046318054 2.5733110904693604 175 149 160
0.79317945241928101 -0.98182779550552368 1.9052103757858276 255 234 240
1.5614422559738159 -0.68310636281967163 1.5249502658843994 243 194 197
1.3556450605392456 0.62491869926452637 1.6346054077148438 255 210 189
1.3250457048416138 0.61764365434646606 1.631505012512207 255 210 189
0.093633808195590973 -1.4425557851791382 2.2353999614715576 243 225 237
-0.15996798872947693 -1.1682698726654053 2.3465859889984131 225 189 189
0.71505993604660034 -0.34430554509162903 1.9068211317062378 255 228 235
0.86536490917205811 0.43517059087753296 1.8205705881118774 239 194 191
1.535770058631897 -0.65233808755874634 1.5648148059844971 192 219 178
-0.035643588751554489 1.3062765598297119 2.1642007827758789 215 174 170
-0.74857467412948608 -0.10831917822360992 2.3505604267120361 186 128 126
-1.1665763854980469 -0.07049279659986496 2.7551474571228027 214 185 179
1.1832675933837891 0.35225895047187805 1.7019385099411011 247 217 191
-0.04238765686750412 -1.4035537242889404 2.3200020790100098 227 212 209
-0.87179070711135864 0.11030565202236176 2.4015731811523438 193 169 182
-0.2167883962392807 1.3417627811431885 2.2454752922058105 235 209 218
-0.68514168262481689 -0.1730610579252243 1.9780631065368652 213 179 178
0.77803963422775269 0.83805751800537109 1.8678028583526611 218 174 187
1.0180675983428955 -0.94302898645401001 1.8233157396316528 243 221 223
1.7135614156723022 -0.20227751135826111 1.4740031957626343 229 217 231
-0.059151250869035721 -1.299167275428772 2.3090202808380127 226 211 192
-0.6641240119934082 -0.2692028284072876 1.9987050294876099 154 163 172
-0.82942879199981689 0.69521194696426392 2.2854185104370117 192 171 178
0.65586918592453003 -0.89320999383926392 1.9592658281326294 232 209 203
-0.93228334188461304 -0.032390251755714417 2.5561456680297852 179 168 185
1.417142391204834 0.37391799688339233 1.5837734937667847 227 218 235
-0.427956223487854 -0.97832697629928589 2.4135382175445557 205 181 194
0.056866716593503952 -1.4941853284835815 2.2524392604827881 241 229 233
-0.74366676807403564 -0.48048296570777893 2.4516317844390869 221 191 181
-0.65120607614517212 -0.54869586229324341 2.3758430480957031 248 228 229
0.97312682867050171 -0.39406749606132507 1.759177565574646 252 208 195
1.3683966398239136 -0.46175149083137512 1.6469155550003052 200 213 185
-0.2868964672088623 1.0916925668716431 2.2106971740722656 189 175 190
-0.31765177845954895 1.4206241369247437 2.2799918651580811 190 193 208
-0.75348955392837524 0.75229239463806152 2.1673266887664795 142 181 128
-0.73449820280075073 -0.0038556335493922234 2.0041759014129639 185 156 160
-0.62340432405471802 -0.19881205260753632 1.9191943407058716 232 194 171
0.82075011730194092 0.84681063890457153 1.8177390098571777 158 158 192
1.6630499362945557 -0.073343865573406219 1.50954270362854 209 206 223
1.8599956035614014 -0.48589763045310974 1.4264957904815674 246 222 210
-0.88466113805770874 0.5380890965461731 2.3625202178955078 205 196 213
1.5213063955307007 0.4603821337223053 1.5562158823013306 208 227 231
1.8286536931991577 -0.40364333987236023 1.4450974464416504 220 195 175
-1.0906777381896973 0.27612641453742981 2.6309773921966553 183 213 161
-0.7228691577911377 -0.39098632335662842 2.4202792644500732 171 179 164
1.5484750270843506 0.10061284899711609 1.534564733505249 234 210 223
-0.59693896770477295 -0.19957748055458069 1.8738411664962769 229 194 200
0.91498005390167236 0.90230035781860352 1.7673368453979492 243 221 233
-0.68629103899002075 0.073248580098152161 1.9499989748001099 172 143 148
-0.95160001516342163 0.50184953212738037 2.4752099514007568 192 193 211
0.80601322650909424 -0.56866157054901123 1.8507357835769653 254 253 251
-0.63843411207199097 0.0055774170905351639 1.8647119998931885 105 108 77
-0.9841647744178772 0.44640395045280457 2.5363450050354004 204 201 222
2.0209224224090576 -0.36768463253974915 1.3412072658538818 253 242 248
0.76787286996841431 -0.13254468142986298 1.8386359214782715 224 197 204
1.9557259082794189 -0.26857841014862061 1.3758338689804077 240 225 232
0.79177528619766235 -0.208144411444664 1.8331035375595093 242 229 238
-0.67764651775360107 0.94117134809494019 2.3600630760192871 196 197 201
-0.56964713335037231 -0.74703431129455566 2.4252364635467529 167 146 155
-0.83160322904586792 0.67381852865219116 2.3032479286193848 159 161 147
0.78083521127700806 0.9361761212348938 1.8274046182632446 230 213 221
-0.95391625165939331 0.41754463315010071 2.4855048656463623 167 173 199
-0.61831289529800415 -0.60815846920013428 2.3692142963409424 253 228 231
-0.23698244988918304 1.2428044080734253 2.2394886016845703 155 157 182
-0.62457805871963501 -0.024315839633345604 1.8606876134872437 188 212 180
-0.81957548856735229 -0.36073464155197144 2.5181953907012939 188 155 162
0.69936823844909668 1.1388940811157227 1.8848848342895508 255 242 241
-0.68713623285293579 0.59614312648773193 1.9092046022415161 191 184 174
-0.82598388195037842 -0.14549510180950165 2.418057918548584 234 209 215
0.74465441703796387 -0.84651482105255127 1.8975720405578613 213 165 155
0.5918540358543396 -1.0808795690536499 1.9724116325378418 229 217 229
1.6258083581924438 -0.54733490943908691 1.5339417457580566 219 174 177
-0.831748366355896 -0.20045621693134308 2.4327871799468994 171 127 142
0.937835693359375 -0.36215069890022278 1.7771674394607544 253 208 202
-0.88057398796081543 0.16112574934959412 2.4018628597259521 172 149 165
0.8407672643661499 -0.6509547233581543 1.8423470258712769 226 205 224
-1.0977087020874023 0.26378500461578369 2.6418213844299316 150 193 121
0.87096649408340454 0.6262514591217041 1.8047840595245361 247 220 213
-0.9128643274307251 -0.039920959621667862 2.4211997985839844 186 164 177
-1.1035469770431519 -0.22097589075565338 2.7204444408416748 244 226 238
-0.95985686779022217 0.42962807416915894 2.4877853393554688 150 154 181
0.9494672417640686 0.31520998477935791 1.7821907997131348 206 178 192
0.82094091176986694 -0.93851625919342041 1.8987770080566406 232 202 212
-0.82896560430526733 0.55761259794235229 2.2895729541778564 249 204 183
0.73737835884094238 -0.76078182458877563 1.897550106048584 220 185 181
-0.96716970205307007 0.48495045304298401 2.5011653900146484 189 177 191
-1.0785064697265625 0.1455426812171936 2.6432886123657227 183 163 164
0.74938458204269409 0.23349596560001373 1.8713947534561157 205 177 192
0.9043305516242981 -0.39255720376968384 1.8043709993362427 166 141 144
-0.30722188949584961 1.4605748653411865 2.3028504848480225 210 210 212
1.4270972013473511 -0.51910483837127686 1.6058846712112427 208 188 189
0.072625152766704559 -1.4679360389709473 2.2405545711517334 245 234 240
-0.60387235879898071 -0.7849610447883606 2.4541385173797607 182 165 183
-0.95937836170196533 0.49146482348442078 2.493027925491333 182 181 199
1.2051595449447632 -0.7070540189743042 1.7212207317352295 219 211 172
-0.77892762422561646 0.25368702411651611 2.2374336719512939 172 134 133
-0.80349630117416382 -0.029392115771770477 2.3774268627166748 208 185 191
1.4620630741119385 -0.62368345260620117 1.6073017120361328 225 202 212
-0.58978629112243652 -0.84163767099380493 2.4621047973632812 222 199 207
1.342529296875 -0.61875587701797485 1.6614234447479248 252 229 221
1.0301164388656616 0.31481730937957764 1.7475600242614746 158 191 144
0.84868717193603516 -0.45646589994430542 1.8558001518249512 253 243 233
-0.75268018245697021 -0.63349771499633789 2.5282480716705322 191 208 192
-0.1254541277885437 -1.3145681619644165 2.3405756950378418 206 218 172
1.6789450645446777 -0.4269111156463623 1.4997580051422119 183 205 167
-1.0166492462158203 0.079812146723270416 2.5856268405914307 221 200 209
-0.33171907067298889 1.401106595993042 2.3059396743774414 183 179 176
-0.57707470655441284 -0.17357806861400604 1.8385022878646851 221 199 186
-0.52618199586868286 -0.84948867559432983 2.4351418018341064 220 207 198
1.0384993553161621 0.33704739809036255 1.748902440071106 154 186 136
-1.0295829772949219 0.33172783255577087 2.555539608001709 143 145 124
0.92579549551010132 -0.56067353487014771 1.8192092180252075 240 212 226
-0.63583409786224365 -0.067226395010948181 1.8898627758026123 138 156 134
1.7423298358917236 0.15780504047870636 1.4649027585983276 158 161 180
-0.73185247182846069 -0.63649815320968628 2.5209276676177979 113 142 114
-0.97637909650802612 -0.028014855459332466 2.5742952823638916 192 169 177
-0.54843199253082275 -0.12247044593095779 1.7128255367279053 117 114 79
-0.21390397846698761 1.2168961763381958 2.2145814895629883 201 189 189
-0.90930020809173584 0.246866375207901 2.4290149211883545 151 132 138
0.94862163066864014 -0.2224278599023819 1.8021833896636963 175 171 159
-0.82492351531982422 -0.059204753488302231 2.3832800388336182 239 215 228
-1.0412960052490234 0.28450927138328552 2.5610315799713135 144 177 150
0.69157254695892334 -1.1311825513839722 1.9419735670089722 159 186 151
-0.79456043243408203 -0.10249892622232437 2.3737080097198486 206 188 202
-0.63731843233108521 -0.17131844162940979 1.9235091209411621 242 207 203
1.1819742918014526 -0.52077555656433105 1.7276458740234375 197 180 186
0.90541154146194458 -0.45083418488502502 1.8413273096084595 253 224 218
-0.61208802461624146 -0.20570191740989685 1.8892072439193726 201 160 164
-1.0485286712646484 0.264677494764328 2.5752410888671875 112 133 90
0.96966928243637085 -1.0094541311264038 1.8237807750701904 199 199 175
0.3153817355632782 1.2304222583770752 2.0277388095855713 222 198 214
-0.212421715259552 -1.1284182071685791 2.3545737266540527 161 182 177
0.79188811779022217 -0.44736537337303162 1.8686898946762085 255 232 218
-1.0368674993515015 -0.22720713913440704 2.6722662448883057 222 209 219
-0.74171113967895508 -0.1656746119260788 2.3414607048034668 178 137 119
-0.50248891115188599 -0.1856667697429657 1.6888831853866577 191 196 190
0.24316191673278809 -1.477686882019043 2.1725506782531738 160 179 147
0.89000177383422852 0.040481206029653549 1.7996835708618164 235 214 221
1.2424300909042358 0.54312294721603394 1.6728538274765015 206 180 191
-0.86113381385803223 0.63627821207046509 2.3232834339141846 172 170 157
1.6522043943405151 -0.59607082605361938 1.5249754190444946 212 182 182
-0.82428526878356934 0.35611608624458313 2.3111872673034668 143 130 147
-0.33317896723747253 1.4285246133804321 2.3120975494384766 246 249 254
1.0850118398666382 0.66632872819900513 1.7286278009414673 209 204 200
0.78024882078170776 -0.91170954704284668 1.9193083047866821 188 173 176
1.5016975402832031 -0.016990635544061661 1.5454915761947632 193 192 171
-0.6755562424659729 0.27472290396690369 1.924902081489563 109 115 129
-1.0449435710906982 0.10218121111392975 2.5987234115600586 211 200 217
0.60523498058319092 0.1338886171579361 1.9006161689758301 249 243 243
-1.0419862270355225 0.16344444453716278 2.5645308494567871 219 197 209
-0.5957791805267334 -0.1445954293012619 1.8539891242980957 232 194 207
-0.96016353368759155 -0.23160365223884583 2.6188576221466064 140 175 135
-0.70240938663482666 0.39882954955101013 1.6804479360580444 164 163 159
1.2096753120422363 -0.7487785816192627 1.7175916433334351 250 216 215
-0.7706608772277832 0.7013745903968811 2.1565282344818115 154 138 141
-0.96618270874023438 -0.21219781041145325 2.6176855564117432 147 184 133
0.79506659507751465 -1.1386363506317139 1.9114829301834106 164 181 165
1.4938706159591675 0.091589652001857758 1.574195384979248 186 184 197
1.7220233678817749 -0.018372669816017151 1.4620000123977661 217 206 223
1.5364243984222412 0.34716415405273438 1.5066633224487305 196 190 200
0.74789601564407349 -0.072991110384464264 1.8611528873443604 210 166 141
-0.54803949594497681 1.1915261745452881 2.3477075099945068 217 194 200
-0.83868986368179321 0.53706550598144531 2.3134677410125732 205 156 141
1.0840028524398804 -0.96638929843902588 1.7721471786499023 198 176 162
0.47637969255447388 -1.1833833456039429 2.0182263851165771 155 173 149
-1.0503244400024414 0.18940731883049011 2.6057586669921875 222 213 230
-0.81790417432785034 -0.16529986262321472 2.4171855449676514 228 200 212
-0.80370742082595825 -0.13976074755191803 2.3970634937286377 230 209 214
-0.98578727245330811 -0.0062641934491693974 2.5713479518890381 208 172 172
0.22264644503593445 -1.4351229667663574 2.1878900527954102 163 155 136
1.6612070798873901 -0.22974768280982971 1.5120973587036133 177 194 184
-0.984325110912323 0.29692754149436951 2.4668071269989014 133 122 128
1.3292566537857056 0.29871001839637756 1.6347283124923706 255 243 243
-0.87620043754577637 0.51451921463012695 2.3709964752197266 183 160 170
-0.32841727137565613 1.1585425138473511 2.2395534515380859 152 150 151
1.1210737228393555 -0.77178382873535156 1.7730171680450439 174 179 157
-0.97138464450836182 0.30237120389938354 2.4551608562469482 134 127 134
1.3395971059799194 0.38885551691055298 1.6395689249038696 245 234 238
-0.74763333797454834 0.39946791529655457 1.7305364608764648 178 180 175
-0.83754926919937134 0.19989380240440369 2.3543295860290527 178 158 170
0.95827788114547729 0.87891215085983276 1.7448581457138062 198 168 168
-0.14245477318763733 -1.1533948183059692 2.3350822925567627 231 204 213
-0.78659957647323608 0.65899723768234253 2.2135677337646484 145 135 133
0.54308658838272095 -1.1223249435424805 1.993611216545105 162 149 159
0.90978211164474487 -0.49348124861717224 1.818616509437561 223 175 173
-0.092630296945571899 -1.2281121015548706 2.3158555030822754 181 161 173
-0.20767758786678314 -1.1699161529541016 2.3732402324676514 129 122 129
1.3018015623092651 0.4631543755531311 1.6144126653671265 255 247 238
1.3427201509475708 -0.32576882839202881 1.6516153812408447 181 170 152
0.7921937108039856 -0.76071518659591675 1.8628416061401367 198 166 171
-0.095837727189064026 -1.1695736646652222 2.3069953918457031 195 171 187
-0.56069469451904297 0.75237858295440674 1.8853141069412231 167 152 155
1.67203688621521 -0.46122744679450989 1.5102262496948242 177 200 171
-0.51149016618728638 -0.71931099891662598 2.3484981060028076 164 113 120
0.68636661767959595 -1.209181547164917 1.9450196027755737 189 196 180
1.0766183137893677 -0.99362802505493164 1.7656224966049194 194 177 159
0.88236624002456665 -0.27602106332778931 1.8234785795211792 205 153 140
-0.37328308820724487 1.4517923593521118 2.3275020122528076 169 174 151
2.1954500675201416 -0.12791347503662109 1.2444262504577637 132 147 176
-0.48194694519042969 0.5549321174621582 1.6095479726791382 225 223 226
1.1649867296218872 0.18510833382606506 1.6847715377807617 212 170 180
0.9167327880859375 0.94452983140945435 1.7806897163391113 201 178 186
-0.34851717948913574 -0.4613577127456665 1.7373429536819458 136 156 107
1.5186872482299805 0.32741263508796692 1.5453845262527466 191 164 171
1.4992811679840088 0.3091680109500885 1.5798712968826294 228 174 164
-0.83510500192642212 -0.20366910099983215 2.4385075569152832 193 159 160
1.6657255887985229 -0.02875477634370327 1.4767225980758667 211 208 229
1.1224789619445801 0.52240222692489624 1.7198778390884399 244 224 233
-0.83263224363327026 0.58096045255661011 2.2982790470123291 186 129 120
0.68798094987869263 -0.67860352993011475 1.9494476318359375 221 155 123
-0.90549510717391968 0.22109296917915344 2.4081161022186279 144 140 155
1.7700003385543823 0.22929443418979645 1.4329373836517334 150 162 186
0.79665088653564453 0.22280323505401611 1.8494845628738403 213 189 202
1.1710168123245239 0.55097371339797974 1.7164069414138794 233 219 234
-0.74634647369384766 -0.5801735520362854 2.5067524909973145 191 149 161
-0.96827811002731323 0.37805017828941345 2.4758613109588623 167 154 161
1.6996207237243652 0.041304215788841248 1.4715332984924316 208 204 221
0.63402819633483887 -0.85487848520278931 1.9512475728988647 183 151 156
0.66468000411987305 -1.1723355054855347 1.9545749425888062 189 175 164
1.6661372184753418 -0.13912922143936157 1.5253523588180542 189 186 203
-0.83508944511413574 0.59495794773101807 2.2954881191253662 155 115 116
-0.84115439653396606 0.70878416299819946 2.326528787612915 151 122 124
0.92892211675643921 -0.64547055959701538 1.8209129571914673 236 219 237
-0.63153791427612305 0.08306024968624115 1.864698052406311 109 133 97
1.8043704032897949 -0.25295341014862061 1.4594388008117676 180 173 180
2.1400883197784424 -0.073352135717868805 1.2494704723358154 151 162 190
-0.82707369327545166 -0.36330729722976685 2.5230128765106201 197 157 166
-0.62792390584945679 -0.15912191569805145 1.9088958501815796 215 177 158
1.3441137075424194 -0.57341295480728149 1.6707963943481445 244 209 190
1.1072902679443359 -0.9343075156211853 1.7665605545043945 210 191 149
1.022449254989624 0.072277560830116272 1.7678942680358887 200 187 178
-0.42535302042961121 1.0938675403594971 2.2844929695129395 151 136 143
-0.71857112646102905 -0.49753203988075256 2.4355709552764893 211 164 156
1.4375243186950684 0.53148043155670166 1.5676649808883667 179 169 160
-0.63620239496231079 0.10755282640457153 1.8691129684448242 116 131 98
-0.10056260973215103 1.4014588594436646 2.2009017467498779 165 158 150
-0.75849652290344238 0.30879145860671997 1.6438939571380615 210 209 215
0.82473272085189819 -0.63404887914657593 1.8725073337554932 209 190 209
1.8627488613128662 -0.41893398761749268 1.4178011417388916 197 165 166
0.71838992834091187 -0.025105362758040428 1.8462226390838623 206 176 174
1.6636086702346802 0.02652432769536972 1.4959883689880371 202 199 220
-0.73239803314208984 -0.49124860763549805 2.4441828727722168 220 184 186
-0.99314504861831665 0.015963906422257423 2.5761208534240723 247 215 216
1.8869489431381226 0.19302184879779816 1.3675967454910278 174 179 185
2.0299932956695557 0.0060885651037096977 1.3000384569168091 144 158 184
0.70019251108169556 1.1822539567947388 1.8895270824432373 239 203 215
-0.72328978776931763 0.059968926012516022 1.9854693412780762 125 112 121
0.88333702087402344 0.59601545333862305 1.8125095367431641 247 214 197
-0.77764230966567993 -0.14919474720954895 2.3828730583190918 201 170 178
0.10173617303371429 -1.2971357107162476 2.2175765037536621 207 143 131
-0.96382778882980347 -0.013274399563670158 2.5681021213531494 211 184 191
-0.4376491904258728 1.285402774810791 2.3228287696838379 151 151 143
-0.74274778366088867 -0.1161622479557991 2.3384356498718262 178 133 130
-1.0367138385772705 -0.19799739122390747 2.6676795482635498 224 212 224
-1.034633994102478 -0.19847668707370758 2.6696653366088867 220 204 217
-0.38429725170135498 1.2715533971786499 2.2902896404266357 153 138 145
-1.0429292917251587 0.1260131448507309 2.5857851505279541 211 202 223
0.97499585151672363 0.24887369573116302 1.7654523849487305 171 195 159
0.73741751909255981 1.0199426412582397 1.8514927625656128 193 140 134
-0.70267730951309204 0.32278174161911011 1.6071114540100098 199 201 200
1.4004044532775879 0.51802295446395874 1.5921809673309326 194 176 190
-0.064239419996738434 1.4077004194259644 2.1918396949768066 110 108 113
0.82589399814605713 1.0759487152099609 1.8240165710449219 203 190 207
1.1892372369766235 -0.65155339241027832 1.7191317081451416 195 182 192
-0.29297789931297302 -0.48472860455513 1.7242178916931152 192 203 189
-1.0253591537475586 -0.0079757710918784142 2.5849540233612061 181 146 144
-0.79675471782684326 0.081288635730743408 2.1212930679321289 123 108 113
0.98609727621078491 0.86524730920791626 1.733720064163208 217 192 187
0.6456683874130249 -0.7716643214225769 1.9648298025131226 181 100 70
1.4146243333816528 0.42170384526252747 1.6053866147994995 222 208 223
-0.68056482076644897 0.65025734901428223 1.9392240047454834 166 166 156
0.80325102806091309 -0.27754864096641541 1.863066554069519 182 166 177
-0.8638002872467041 0.2643369734287262 2.3599197864532471 210 169 177
0.90007299184799194 0.51304644346237183 1.8148903846740723 255 230 222
1.0461255311965942 0.74847120046615601 1.7331269979476929 150 136 153
0.8920103907585144 0.82974845170974731 1.7732515335083008 226 200 213
-0.7980312705039978 0.23037448525428772 2.3246548175811768 155 123 126
2.2375683784484863 -0.16715192794799805 1.2060374021530151 146 157 185
0.84052681922912598 -0.64188987016677856 1.8520749807357788 237 214 230
-0.95434540510177612 0.308868408203125 2.4393928050994873 134 122 132
0.70726770162582397 -0.075281776487827301 1.8875206708908081 199 140 106
0.7372061014175415 -0.07689376175403595 1.8968945741653442 188 134 100
1.2433838844299316 0.56271803379058838 1.6746370792388916 202 178 192
0.83220779895782471 0.89372968673706055 1.8224611282348633 203 190 210
-1.0156608819961548 -0.29519611597061157 2.6834144592285156 200 182 194
-0.77048385143280029 0.12575012445449829 2.0592265129089355 132 111 116
-0.61414831876754761 -0.20010499656200409 1.904584527015686 188 128 136
-0.32087194919586182 1.4213038682937622 2.2935190200805664 190 182 195
2.2599067687988281 -0.10233595222234726 1.2060552835464478 148 162 188
0.79505723714828491 0.082681924104690552 1.8401601314544678 236 194 195
0.94869452714920044 -0.51654857397079468 1.7918025255203247 163 129 145
-1.0506763458251953 0.18901753425598145 2.6007566452026367 213 205 226
1.568447470664978 0.38744312524795532 1.5212270021438599 174 170 185
1.6031699180603027 0.057804562151432037 1.5243973731994629 159 163 140
-0.12349449843168259 -1.1718937158584595 2.3238375186920166 176 157 177
-0.44312003254890442 -0.98060786724090576 2.437978982925415 197 173 189
1.1298924684524536 -0.74918860197067261 1.7423331737518311 143 153 128
-0.98935908079147339 0.090772226452827454 2.5530695915222168 225 195 203
-0.7462201714515686 0.12461977452039719 2.0210540294647217 124 113 127
-0.78021025657653809 0.30223652720451355 1.6743757724761963 137 138 143
0.9720149040222168 0.30507853627204895 1.7677574157714844 167 141 108
-0.57880181074142456 -0.12531685829162598 1.8205647468566895 177 137 148
-0.26807734370231628 1.2201266288757324 2.2281708717346191 157 161 188
-0.61523956060409546 0.49356094002723694 1.6858022212982178 183 181 184
-0.68124938011169434 0.078161820769309998 1.9430537223815918 142 133 124
0.70804256200790405 0.89967560768127441 1.8726154565811157 171 150 165
0.74855852127075195 0.69178110361099243 1.8607813119888306 237 177 177
1.3308826684951782 -0.26456809043884277 1.596896767616272 190 179 161
-0.78921186923980713 0.29535973072052002 2.093090295791626 121 116 122
-1.026697039604187 0.16448646783828735 2.555717945098877 209 173 177
-0.44393905997276306 0.68210971355438232 1.7004894018173218 166 156 157
-0.60626077651977539 0.61686736345291138 1.8418351411819458 173 165 163
1.5412635803222656 0.17726504802703857 1.5440449714660645 170 164 176
-0.75226616859436035 0.23226238787174225 1.6651146411895752 136 156 131
-0.54504609107971191 0.60704118013381958 1.7389320135116577 200 196 210
0.70159780979156494 0.97053730487823486 1.8829846382141113 120 89 95
1.5407183170318604 0.19245460629463196 1.5397005081176758 174 161 171
-0.47260847687721252 0.64775627851486206 1.7082182168960571 196 186 184
0.94286620616912842 -0.94592553377151489 1.8441483974456787 222 199 207
-0.68870818614959717 -0.57966446876525879 2.4325342178344727 248 219 223
1.3728863000869751 -0.76987719535827637 1.6660683155059814 180 158 144
-0.43459221720695496 0.80617350339889526 1.8132855892181396 209 205 167
-0.1052018329501152 -1.2833458185195923 2.3127307891845703 171 183 137
1.7804442644119263 0.24581022560596466 1.436063289642334 181 188 214
-0.44566333293914795 1.3106914758682251 2.337285041809082 158 148 147
-0.72653102874755859 0.40557760000228882 1.7120448350906372 181 182 177
0.94709479808807373 0.21052198112010956 1.7685036659240723 164 144 156
1.1878392696380615 -0.29241415858268738 1.7237488031387329 194 179 182
-0.9961206316947937 0.41224440932273865 2.5379397869110107 127 115 125
-0.70785015821456909 -0.15583980083465576 2.0012967586517334 194 133 128
-0.37852898240089417 0.78908097743988037 1.7164468765258789 191 194 185
1.3306307792663574 0.022479742765426636 1.6413184404373169 206 169 176
1.9832756519317627 -0.2975364625453949 1.351876974105835 255 243 248
0.7947271466255188 -0.67910110950469971 1.8857674598693848 183 171 173
1.1528308391571045 -0.48594552278518677 1.7310695648193359 215 192 202
-0.45261326432228088 -0.99045348167419434 2.4445486068725586 198 185 203
-0.84664177894592285 -0.13209731876850128 2.4378199577331543 133 113 138
1.5535866022109985 0.29479655623435974 1.5465025901794434 162 150 162
-0.64415884017944336 -0.57441568374633789 2.3775300979614258 255 230 233
0.82329261302947998 0.15942171216011047 1.8384392261505127 207 176 182
1.185291051864624 -0.53740584850311279 1.7162083387374878 143 147 133
-0.6196480393409729 -0.33935272693634033 1.9998713731765747 132 115 121
1.5340030193328857 0.37716338038444519 1.5364822149276733 175 159 170
1.4620980024337769 0.49346163868904114 1.5716432332992554 186 169 187
-1.0699640512466431 -0.21861305832862854 2.7025463581085205 208 201 217
1.2064380645751953 0.33804982900619507 1.6832603216171265 160 139 156
1.4349379539489746 0.59182959794998169 1.5950170755386353 156 155 173
0.94437241554260254 0.9416043758392334 1.7352278232574463 180 165 146
-0.70877629518508911 0.55709081888198853 1.9623569250106812 91 86 80
0.80744582414627075 0.78134340047836304 1.856889009475708 142 118 118
0.5606304407119751 -1.1787450313568115 1.986463189125061 225 214 228
0.99451160430908203 -0.92035454511642456 1.8417003154754639 249 231 231
1.5201680660247803 0.3083115816116333 1.5570840835571289 159 133 144
-1.0347706079483032 -0.27223622798919678 2.6865222454071045 241 222 226
0.6181679368019104 -0.29071342945098877 1.9152084589004517 219 205 220
-0.66845047473907471 -0.5880812406539917 2.4044301509857178 248 227 226
-0.44455662369728088 0.70614117383956909 1.7102363109588623 171 162 157
-0.83419489860534668 -0.042263351380825043 2.3850221633911133 223 201 214
1.8604146242141724 0.0044276253320276737 1.4147226810455322 143 159 185
1.065189003944397 0.81690096855163574 1.7170419692993164 190 179 149
2.2212514877319336 -0.048544652760028839 1.2082891464233398 147 157 184
0.74722194671630859 0.28546980023384094 1.8739817142486572 235 207 222
1.11236572265625 0.57858735322952271 1.7306442260742188 219 211 226
-1.050742506980896 0.13614360988140106 2.5965535640716553 233 219 236
-0.66957730054855347 0.45397496223449707 1.7134319543838501 164 164 162
-0.7158735990524292 -0.48226398229598999 2.433253288269043 176 126 125
-0.72261309623718262 0.38244757056236267 1.6849297285079956 170 172 167
-0.63287174701690674 -0.20469887554645538 1.9305869340896606 209 159 162
1.8245948553085327 -0.21742337942123413 1.4304084777832031 138 150 166
1.971064567565918 -0.14839573204517365 1.3534564971923828 131 148 176
1.143431544303894 0.58130967617034912 1.7117537260055542 238 220 232
0.047056622803211212 -1.3617508411407471 2.2533626556396484 198 134 134
-0.52420741319656372 -0.14753125607967377 1.705772876739502 145 137 116
-0.64184308052062988 -0.79688864946365356 2.4989213943481445 218 203 224
1.3567763566970825 -0.68907803297042847 1.6502790451049805 253 223 225
1.5180095434188843 0.35823830962181091 1.538496732711792 176 151 157
1.5029354095458984 0.48546719551086426 1.5502539873123169 172 166 176
1.89936363697052 -0.068648330867290497 1.3887959718704224 143 155 177
0.72676271200180054 -0.73879671096801758 1.9207510948181152 237 209 208
1.2873879671096802 0.47522565722465515 1.6439327001571655 161 89 65
1.403462290763855 0.56745469570159912 1.6090186834335327 158 145 162
1.6603156328201294 -0.0026778585743159056 1.4869197607040405 202 193 214
-0.67648178339004517 0.44330507516860962 1.7069016695022583 171 170 168
-0.71843904256820679 0.038519762456417084 1.9821469783782959 123 102 107
2.0408985614776611 -0.21451513469219208 1.3251630067825317 124 138 165
0.89585727453231812 0.12464466691017151 1.8018366098403931 220 202 216
-0.81425905227661133 0.36891603469848633 2.159522533416748 127 116 124
0.92078244686126709 0.51212722063064575 1.7968713045120239 255 222 214
1.8399087190628052 0.17608655989170074 1.4039491415023804 145 157 179
2.0468568801879883 0.011741547845304012 1.3070393800735474 155 167 193
-1.0341837406158447 0.14183850586414337 2.5847301483154297 208 199 216
-0.60475707054138184 1.1432722806930542 2.3710989952087402 244 223 228
2.3307640552520752 -0.13349869847297668 1.1549471616744995 167 181 207
0.55959254503250122 -1.2108328342437744 1.9868141412734985 223 210 227
1.7114952802658081 0.36507603526115417 1.4575703144073486 160 172 196
0.14590904116630554 -1.5585013628005981 2.2228562831878662 252 239 249
1.7861961126327515 0.3135300874710083 1.4095026254653931 145 152 178
1.5635554790496826 0.44674929976463318 1.5301258563995361 175 154 149
-0.63847160339355469 0.38872057199478149 1.5868995189666748 187 186 184
1.0748947858810425 0.78910636901855469 1.718664288520813 173 161 137
-0.74367916584014893 0.12191826850175858 2.0033140182495117 92 86 90
2.1859333515167236 -0.074541054666042328 1.2394311428070068 146 156 181
1.887103796005249 -0.52877694368362427 1.4051973819732666 162 161 175
-0.74334520101547241 -0.04004640132188797 2.0124111175537109 120 101 107
0.67513811588287354 -0.49203035235404968 1.9186520576477051 188 190 185
0.86191028356552124 1.0553356409072876 1.7927889823913574 236 179 160
2.2891654968261719 -0.16617172956466675 1.1767655611038208 152 166 192
1.9342702627182007 -0.48712146282196045 1.3882040977478027 171 178 170
2.1782176494598389 0.0013444912619888783 1.2350233793258667 147 159 183
-0.47820651531219482 0.86954402923583984 1.9757283926010132 166 175 156
1.3915740251541138 0.493003249168396 1.5967216491699219 231 220 236
1.4990521669387817 0.8435325026512146 1.5112622976303101 140 149 178
-1.0484212636947632 0.21145221590995789 2.5982093811035156 184 183 201
2.0665664672851562 0.017745601013302803 1.2752717733383179 148 162 189
2.1193509101867676 -0.028551913797855377 1.2630449533462524 147 161 187
2.1973128318786621 -0.079829409718513489 1.2171887159347534 133 145 169
1.1802865266799927 0.58119451999664307 1.6989985704421997 255 236 243
1.8695508241653442 0.16262216866016388 1.3819437026977539 148 158 183
0.60570400953292847 -0.33230537176132202 1.9182447195053101 180 156 172
-0.84687179327011108 0.33285436034202576 2.3464865684509277 203 167 181
-0.67447930574417114 0.56257694959640503 1.847923755645752 157 147 146
-0.75351560115814209 0.15677057206630707 2.021343469619751 97 96 104
-0.58520030975341797 -0.19134098291397095 1.8604662418365479 178 141 159
2.172459602355957 -0.26568424701690674 1.2521827220916748 139 151 177
1.7062966823577881 0.18483166396617889 1.4747142791748047 149 161 185
1.6213997602462769 0.29314857721328735 1.5194665193557739 159 150 167
2.2146594524383545 -0.19011694192886353 1.2329781055450439 141 155 182
0.95979911088943481 0.84026718139648438 1.7445344924926758 223 194 198
1.6504888534545898 0.31083628535270691 1.4938428401947021 152 164 186
2.0761055946350098 -0.16151528060436249 1.2959444522857666 127 141 168
1.4058812856674194 -0.6025155782699585 1.6261898279190063 233 210 218
1.9565768241882324 0.047784477472305298 1.325609564781189 134 144 169
1.1561354398727417 -0.5160527229309082 1.736173152923584 197 167 177
1.7988702058792114 0.1373794823884964 1.4137187004089355 137 152 175
1.8270920515060425 0.19998274743556976 1.3960598707199097 141 153 177
1.9382354021072388 0.03653312474489212 1.3548909425735474 134 148 174
1.5994417667388916 0.26532590389251709 1.5298651456832886 165 143 156
1.7363758087158203 0.20229974389076233 1.4521167278289795 139 148 177
1.1634705066680908 0.61036515235900879 1.6968907117843628 225 204 219
-0.85903894901275635 0.30852717161178589 2.348686695098877 191 150 166
1.6127774715423584 0.49144843220710754 1.5003697872161865 132 146 173
1.4706288576126099 0.6581120491027832 1.5397145748138428 238 225 234
-0.85163676738739014 -0.12930306792259216 2.4453384876251221 113 95 119
1.9559922218322754 -0.34646207094192505 1.3608154058456421 242 230 232
1.9071555137634277 -0.057571563869714737 1.3759022951126099 123 137 163
1.8916760683059692 0.13581472635269165 1.3740293979644775 123 133 158
0.64766770601272583 -0.25888076424598694 1.9000433683395386 221 201 213
1.9830926656723022 0.090848162770271301 1.3164154291152954 116 130 156
0.94703096151351929 0.82960802316665649 1.7483818531036377 208 184 197
2.1691520214080811 -0.33987864851951599 1.2612447738647461 117 129 155
1.9608211517333984 -0.029097992926836014 1.3496547937393188 119 133 160
0.96126145124435425 0.91369318962097168 1.7113012075424194 161 126 107
0.96600896120071411 -0.0120832659304142 1.7779635190963745 218 165 159
-0.61491245031356812 -0.79903018474578857 2.4775764942169189 171 159 183
1.8693205118179321 0.27414408326148987 1.3834784030914307 119 133 159
2.2365138530731201 -0.21866863965988159 1.2167640924453735 126 138 164
0.86859047412872314 -0.63878083229064941 1.8321869373321533 205 186 205
0.76137661933898926 0.84590822458267212 1.8487008810043335 185 138 148
0.64954400062561035 0.49317675828933716 1.884904146194458 239 230 231
1.6114209890365601 0.3372858464717865 1.5030076503753662 138 146 169
1.0410009622573853 0.54197829961776733 1.7466695308685303 200 192 215
-0.61053323745727539 -0.12475912272930145 1.8594164848327637 161 114 132
1.4842050075531006 -0.70479416847229004 1.6291882991790771 210 189 208
1.6859755516052246 0.3545125424861908 1.4741054773330688 123 137 163
-0.62717962265014648 0.58566033840179443 1.8345910310745239 149 140 141
0.95229935646057129 -0.07875484973192215 1.7862710952758789 205 161 176
2.1669998168945312 -0.28011339902877808 1.2583332061767578 113 125 151
2.0152583122253418 -0.017095314338803291 1.3142578601837158 131 145 171
2.3087670803070068 -0.15610939264297485 1.158284068107605 140 152 178
1.0239559412002563 0.78340721130371094 1.7417876720428467 202 179 189
-0.99671447277069092 0.052006237208843231 2.5817172527313232 196 174 187
0.85200577974319458 0.75142920017242432 1.7977906465530396 176 158 180
1.8003513813018799 0.14732509851455688 1.4202207326889038 115 125 150
1.8297832012176514 0.087497323751449585 1.3759523630142212 118 130 156
-0.83836162090301514 0.55899709463119507 2.3068315982818604 134 87 93
2.1508026123046875 -0.18032693862915039 1.2469611167907715 108 122 149
0.59877890348434448 -0.33578300476074219 1.9298423528671265 157 144 162
1.7655131816864014 0.23900064826011658 1.4228101968765259 136 143 169
1.6698727607727051 0.28240025043487549 1.486534595489502 120 135 158
1.6361511945724487 0.45825961232185364 1.486882209777832 124 138 165
2.1062266826629639 -0.052200216799974442 1.2724360227584839 128 140 166
-0.72803080081939697 0.36141827702522278 1.6659082174301147 114 109 113
-0.70271003246307373 0.57105410099029541 1.9602417945861816 77 72 66
1.1677080392837524 0.56879055500030518 1.7066729068756104 232 210 223
-0.45039871335029602 0.74296653270721436 1.7481703758239746 132 121 117
-0.45967134833335876 0.7309839129447937 1.7555259466171265 130 118 120
1.8658396005630493 0.20577433705329895 1.3844244480133057 130 135 139
1.7991361618041992 -0.1838681548833847 1.4339140653610229 137 139 154
2.0559678077697754 -0.093318276107311249 1.294208288192749 122 134 160
0.899882972240448 0.13832800090312958 1.8007881641387939 172 151 168
-0.79976928234100342 0.32763117551803589 2.1343286037445068 113 98 101
0.79179525375366211 0.11270933598279953 1.8371988534927368 198 155 162
-0.70055931806564331 0.52024704217910767 1.9285482168197632 74 74 62
-0.48344606161117554 0.67668235301971436 1.7481175661087036 121 106 109
0.96285796165466309 0.86085528135299683 1.7447347640991211 186 155 161
-0.58989769220352173 0.61209911108016968 1.8149996995925903 144 134 135
-0.42334365844726562 0.69228333234786987 1.6810122728347778 124 113 119
2.0573573112487793 -0.30256429314613342 1.3015304803848267 133 141 164
-0.51958513259887695 0.56207436323165894 1.6522296667098999 107 98 103
-0.67918199300765991 0.59679120779037476 1.8996697664260864 128 138 104
1.2487165927886963 0.42839536070823669 1.6696411371231079 186 179 173
-0.43624714016914368 0.71699190139770508 1.7135868072509766 129 120 113
0.67421424388885498 -0.50833028554916382 1.9273536205291748 135 120 115
1.7542608976364136 0.27769759297370911 1.4338513612747192 104 110 136
-0.44323679804801941 0.66807597875595093 1.6891101598739624 122 114 111
1.3339551687240601 0.059126853942871094 1.6300815343856812 159 140 162
1.6027095317840576 0.39072811603546143 1.5037797689437866 118 132 158
0.91135632991790771 0.52326488494873047 1.8009053468704224 216 186 178
1.7528176307678223 0.32614955306053162 1.4427390098571777 113 119 143
-0.30480718612670898 0.77109771966934204 1.6510071754455566 135 130 137
0.73536747694015503 -0.73614770174026489 1.9063295125961304 200 168 169
1.6522291898727417 -0.14244808256626129 1.5107983350753784 128 122 136
0.62928074598312378 0.31750985980033875 1.9106158018112183 177 168 189
1.6719603538513184 0.19837659597396851 1.4875552654266357 131 139 162
-0.67437213659286499 0.46034824848175049 1.7271502017974854 111 109 110
0.9757075309753418 -0.26014167070388794 1.7723798751831055 198 134 125
1.3646869659423828 0.63444894552230835 1.6109710931777954 188 138 127
-0.4154505729675293 0.6774904727935791 1.6509675979614258 119 111 122
1.7418984174728394 0.36534085869789124 1.4419088363647461 126 141 164
-0.47823351621627808 -0.24937912821769714 1.7046245336532593 97 97 89
-0.52025753259658813 -0.90524935722351074 2.4467217922210693 205 187 201
1.0682058334350586 0.77798759937286377 1.7265143394470215 127 106 89
1.8746076822280884 0.17570260167121887 1.3925777673721313 112 123 143
1.9144512414932251 0.11561893671751022 1.3595134019851685 111 123 149
0.73593658208847046 -0.7737424373626709 1.8964041471481323 139 92 72
-0.72234225273132324 0.0090232109650969505 2.0008509159088135 77 54 62
0.72387945652008057 1.106047511100769 1.8759422302246094 207 182 185
-0.31869009137153625 -0.55393129587173462 1.7369335889816284 111 117 115
0.83388525247573853 -0.066917285323143005 1.8192977905273438 198 171 178
-0.7583957314491272 0.39077410101890564 1.7320674657821655 109 109 111
